-4.895793497562408447e-01 -2.318384945392608643e-01 8.405730128288269043e-01 -2.746394276618957520e-01 -9.598252773284912109e-01 5.752024054527282715e-02
-1.197979003190994263e-01 9.476876258850097656e-01 2.958658039569854736e-01 -4.133393764495849609e-01 -8.826223611831665039e-01 -2.238934636116027832e-01
2.181921154260635376e-02 9.394993782043457031e-01 -3.418549597263336182e-01 -2.517918944358825684e-01 -9.645918011665344238e-01 7.850778102874755859e-02
-9.818699359893798828e-01 6.058885529637336731e-02 1.796118915081024170e-01 5.902915000915527344e-01 -7.805026173591613770e-01 -2.058435231447219849e-01
-8.923249244689941406e-01 -3.401486873626708984e-01 -2.967407107353210449e-01 1.549723297357559204e-01 -4.933607280254364014e-01 -8.559081554412841797e-01
2.964117228984832764e-01 -9.379286766052246094e-01 1.800829470157623291e-01 -1.969736218452453613e-01 -9.050432443618774414e-01 3.769590854644775391e-01
3.981621861457824707e-01 -6.244112849235534668e-01 6.719951033592224121e-01 -4.306014180183410645e-01 -4.583654999732971191e-01 -7.774853706359863281e-01
-9.380398988723754883e-01 1.318199485540390015e-01 -3.204757273197174072e-01 1.777144819498062134e-01 9.638766050338745117e-01 1.983920335769653320e-01
-9.335040450096130371e-01 -3.016146719455718994e-01 1.939040273427963257e-01 -2.227377444505691528e-01 -4.669859707355499268e-01 -8.557522892951965332e-01
3.176482915878295898e-01 -6.617906689643859863e-01 -6.790674924850463867e-01 -7.746853232383728027e-01 -6.049512028694152832e-01 1.841105222702026367e-01
-4.064311385154724121e-01 -5.690359473228454590e-01 -7.148509025573730469e-01 -6.152429580688476562e-01 5.255556702613830566e-01 5.875945687294006348e-01
-4.576390087604522705e-01 2.115171551704406738e-01 -8.636127710342407227e-01 -3.305088579654693604e-01 -9.269571304321289062e-01 -1.775229871273040771e-01
-9.708418846130371094e-01 1.738578826189041138e-01 1.650437563657760620e-01 -2.830143272876739502e-01 4.838597178459167480e-01 -8.281199932098388672e-01
-8.901162147521972656e-01 7.544817030429840088e-02 4.494449198246002197e-01 -6.997817158699035645e-01 6.788154244422912598e-01 2.225201129913330078e-01
-7.464340329170227051e-01 5.166254043579101562e-01 -4.194453954696655273e-01 5.156341195106506348e-01 -3.870035409927368164e-01 -7.644277215003967285e-01
-5.967930555343627930e-01 3.621533513069152832e-01 7.160188555717468262e-01 -7.381704449653625488e-01 5.500621795654296875e-01 -3.905585408210754395e-01
-3.176747858524322510e-01 5.648488998413085938e-01 7.615960240364074707e-01 1.508458405733108521e-01 8.803679347038269043e-01 -4.496641457080841064e-01
2.639481425285339355e-01 -9.218368530273437500e-01 -2.838100194931030273e-01 4.814181625843048096e-01 8.764812350273132324e-01 -4.144558217376470566e-03
-9.166476130485534668e-01 -1.758965402841567993e-01 3.589116036891937256e-01 -3.153191804885864258e-01 6.513168811798095703e-01 6.901884675025939941e-01
8.100852966308593750e-01 5.857133865356445312e-01 2.648838981986045837e-02 -7.987880706787109375e-01 1.476118713617324829e-01 -5.832223296165466309e-01
2.766037881374359131e-01 -4.231785535812377930e-01 -8.627921342849731445e-01 -6.485968828201293945e-01 6.388620138168334961e-01 -4.137359261512756348e-01
4.286468327045440674e-01 -8.522807955741882324e-01 -2.997987866401672363e-01 -4.040942192077636719e-01 9.142645597457885742e-01 2.877798676490783691e-02
1.930472403764724731e-01 -8.839447498321533203e-01 4.258808195590972900e-01 -2.999791800975799561e-01 -9.369142055511474609e-01 1.794555783271789551e-01
-4.765879511833190918e-01 -6.753803491592407227e-01 5.627835392951965332e-01 -1.625202596187591553e-01 -9.524674415588378906e-01 2.576683461666107178e-01
9.195052981376647949e-01 -3.919126093387603760e-01 -3.024053573608398438e-02 3.786119520664215088e-01 -6.426507830619812012e-01 -6.660727858543395996e-01
-2.385940849781036377e-01 1.029459573328495026e-02 9.710648059844970703e-01 -1.694822758436203003e-01 -2.118374258279800415e-01 9.624971151351928711e-01
-5.066865086555480957e-01 -7.645924091339111328e-01 3.983305990695953369e-01 2.096832841634750366e-01 1.454972326755523682e-01 -9.668833613395690918e-01
1.219677031040191650e-01 5.358332395553588867e-01 -8.354678750038146973e-01 7.424986958503723145e-01 4.145875573158264160e-01 -5.261300802230834961e-01
3.107328116893768311e-01 -8.190264701843261719e-01 4.823285043239593506e-01 -5.535136461257934570e-01 -3.229024708271026611e-01 7.676956653594970703e-01
3.187900185585021973e-01 9.474892020225524902e-01 2.524168044328689575e-02 -3.051277399063110352e-01 9.486300945281982422e-01 8.365399390459060669e-02
-6.136046648025512695e-01 -4.216676354408264160e-01 -6.675969362258911133e-01 8.106998801231384277e-01 -1.515481472015380859e-01 -5.655075907707214355e-01
-1.959148794412612915e-01 -8.751137852668762207e-01 -4.424852728843688965e-01 -8.274148702621459961e-01 8.667107671499252319e-02 -5.548628568649291992e-01
-1.005714684724807739e-01 -2.682827115058898926e-01 -9.580760598182678223e-01 -9.971059560775756836e-01 -2.425259910523891449e-02 7.205208390951156616e-02
-1.241458654403686523e-01 -9.701905250549316406e-01 -2.081299871206283569e-01 7.162064313888549805e-01 6.952486634254455566e-01 6.064338982105255127e-02
-2.429263144731521606e-01 -7.588223218917846680e-01 6.042975187301635742e-01 -8.693847656250000000e-01 -4.873144030570983887e-01 -8.182196319103240967e-02
-5.671197772026062012e-01 -8.040849566459655762e-01 1.783887892961502075e-01 -1.166659891605377197e-01 9.813317060470581055e-01 1.528958082199096680e-01
1.081989705562591553e-01 -9.654116630554199219e-01 -2.372200489044189453e-01 -9.192916750907897949e-01 3.133477866649627686e-01 -2.381511926651000977e-01
-4.886707365512847900e-01 -7.832081913948059082e-01 -3.844292759895324707e-01 8.972449898719787598e-01 -3.714177310466766357e-01 2.387474477291107178e-01
4.084095358848571777e-02 -6.328611969947814941e-01 7.731873989105224609e-01 4.917858839035034180e-01 5.666309595108032227e-01 -6.611171960830688477e-01
7.854698896408081055e-01 -8.070475608110427856e-02 6.136153340339660645e-01 -8.309022784233093262e-01 -5.392160415649414062e-01 1.372862011194229126e-01
7.377804517745971680e-01 9.424472227692604065e-04 6.750400662422180176e-01 6.221506595611572266e-01 6.797234416007995605e-01 -3.884644210338592529e-01
-9.675520062446594238e-01 2.077695578336715698e-01 1.437876075506210327e-01 -7.792279124259948730e-01 -5.503427982330322266e-01 -2.998777627944946289e-01
-8.281829357147216797e-01 -5.136679410934448242e-01 2.241835445165634155e-01 5.106748342514038086e-01 -6.297006458044052124e-02 -8.574648499488830566e-01
-7.072477936744689941e-01 -6.556804180145263672e-01 2.643553316593170166e-01 -5.770639777183532715e-01 8.357984572649002075e-02 8.124109506607055664e-01
9.999694824218750000e-01 3.703340888023376465e-03 6.881454959511756897e-03 -2.532894015312194824e-01 -9.533860683441162109e-01 -1.640107631683349609e-01
-5.720989108085632324e-01 6.769792437553405762e-01 -4.630355536937713623e-01 8.927146792411804199e-01 -1.839228123426437378e-01 -4.113792777061462402e-01
-8.650242090225219727e-01 -2.965762317180633545e-01 -4.046920537948608398e-01 7.488482594490051270e-01 2.519424259662628174e-01 6.129855513572692871e-01
-8.707679510116577148e-01 2.097812592983245850e-01 4.446965157985687256e-01 6.289822459220886230e-01 6.472926139831542969e-01 4.305735826492309570e-01
-3.388970494270324707e-01 -2.442243993282318115e-01 -9.085720777511596680e-01 7.209714055061340332e-01 -6.445673704147338867e-01 2.544270157814025879e-01
-6.272321939468383789e-01 -6.550251841545104980e-01 -4.213333427906036377e-01 3.754111826419830322e-01 5.962092280387878418e-01 -7.096484899520874023e-01
9.551457762718200684e-01 -6.839393172413110733e-03 -2.960570454597473145e-01 -2.730571925640106201e-01 9.587293863296508789e-01 -7.923205196857452393e-02
-5.840404033660888672e-01 6.742365956306457520e-01 -4.519975483417510986e-01 -6.192117333412170410e-01 7.489109784364700317e-02 7.816445231437683105e-01
-1.984908729791641235e-01 -5.877473950386047363e-01 -7.843177914619445801e-01 -8.552680611610412598e-01 4.739825725555419922e-01 2.094209045171737671e-01
2.966215312480926514e-01 -6.644886136054992676e-01 -6.859085559844970703e-01 3.842282891273498535e-01 -7.282256484031677246e-01 5.674997568130493164e-01
-9.754608273506164551e-01 -1.712624430656433105e-01 -1.383668780326843262e-01 -2.648518979549407959e-01 -8.598060011863708496e-01 4.365628063678741455e-01
-2.346473783254623413e-01 9.340770244598388672e-01 2.691480815410614014e-01 -5.641333386301994324e-02 6.585544943809509277e-01 -7.504155635833740234e-01
1.195782944560050964e-01 1.614114344120025635e-01 -9.796159267425537109e-01 -5.181490182876586914e-01 -7.579022645950317383e-01 3.963656425476074219e-01
4.010318219661712646e-01 -8.410596847534179688e-01 3.630318343639373779e-01 3.510654568672180176e-01 -9.126698374748229980e-01 -2.092529684305191040e-01
9.112657308578491211e-01 -2.244305014610290527e-01 3.452907800674438477e-01 3.810501098632812500e-01 2.204613387584686279e-01 8.978850841522216797e-01
-4.088816642761230469e-01 1.337653100490570068e-01 9.027306437492370605e-01 8.780287206172943115e-02 6.272433996200561523e-01 7.738581299781799316e-01
-9.488983154296875000e-01 8.275505900382995605e-02 3.045382499694824219e-01 8.707925677299499512e-01 3.270647823810577393e-01 -3.670815825462341309e-01
5.128099918365478516e-01 7.303345203399658203e-01 -4.512619674205780029e-01 -6.718372702598571777e-01 7.210870385169982910e-01 1.693166345357894897e-01
7.141897678375244141e-01 -6.994014382362365723e-01 -2.775995805859565735e-02 5.180857777595520020e-01 3.492686748504638672e-01 7.807678580284118652e-01
5.417925119400024414e-02 -9.032826637849211693e-04 9.985308051109313965e-01 7.013909816741943359e-01 4.864905476570129395e-01 5.209391713142395020e-01
-2.214096039533615112e-01 -9.706426858901977539e-01 -9.397105127573013306e-02 -7.748554348945617676e-01 -3.518476486206054688e-01 5.251688361167907715e-01
-1.817146837711334229e-01 8.369691371917724609e-01 5.162000656127929688e-01 2.182826846837997437e-01 -7.084090709686279297e-01 -6.711998581886291504e-01
3.932708203792572021e-01 -7.747043967247009277e-01 4.951475858688354492e-01 1.208136081695556641e-01 9.358319044113159180e-01 -3.310931921005249023e-01
-9.586126208305358887e-01 3.626149892807006836e-02 -2.823950052261352539e-01 3.339140117168426514e-01 6.231352686882019043e-01 7.072509527206420898e-01
-2.173674404621124268e-01 4.787261039018630981e-02 9.749152064323425293e-01 -6.252345442771911621e-01 -2.749368250370025635e-01 -7.304050326347351074e-01
-3.709416091442108154e-01 -2.503141462802886963e-01 -8.942847251892089844e-01 -7.355356216430664062e-01 6.431081295013427734e-01 2.130710482597351074e-01
3.108255192637443542e-02 4.505083262920379639e-01 8.922309875488281250e-01 1.607574224472045898e-01 4.315671026706695557e-01 -8.876411914825439453e-01
2.874520421028137207e-01 -6.497352123260498047e-01 7.037155032157897949e-01 -8.219126611948013306e-02 6.525082886219024658e-02 9.944782257080078125e-01
4.719602465629577637e-01 -9.335871040821075439e-02 8.766627907752990723e-01 -7.759453654289245605e-01 5.162456035614013672e-01 -3.624903559684753418e-01
-6.351758837699890137e-01 -7.460983991622924805e-01 -1.997219175100326538e-01 7.025865912437438965e-01 6.346344947814941406e-01 -3.218868374824523926e-01
1.737751364707946777e-01 -4.674618691205978394e-02 -9.836752414703369141e-01 3.575398325920104980e-01 6.584746241569519043e-01 -6.622510552406311035e-01
-1.550205796957015991e-01 -9.873117804527282715e-01 -3.441031277179718018e-02 -9.525691866874694824e-01 -1.827535964548587799e-02 3.037729561328887939e-01
1.306885331869125366e-01 -9.191178679466247559e-01 -3.716757595539093018e-01 8.636050820350646973e-01 4.907048344612121582e-01 1.157367303967475891e-01
3.293834924697875977e-01 -8.270363807678222656e-01 -4.555406868457794189e-01 -5.921465754508972168e-01 2.775849103927612305e-01 -7.565110921859741211e-01
-8.429831266403198242e-01 1.800136119127273560e-01 -5.069265961647033691e-01 8.962892889976501465e-01 -2.409145087003707886e-01 3.723247349262237549e-01
6.687555313110351562e-01 5.578313395380973816e-02 -7.413867115974426270e-01 8.226046562194824219e-01 -6.816222518682479858e-02 -5.645134449005126953e-01
8.975638151168823242e-01 -2.294436544179916382e-01 3.764768242835998535e-01 -9.508265852928161621e-01 2.488401979207992554e-01 1.844108551740646362e-01
5.768397450447082520e-01 5.039088129997253418e-01 6.429088711738586426e-01 -4.035567864775657654e-02 -7.363643646240234375e-01 6.753805875778198242e-01
-9.751842916011810303e-02 6.096432209014892578e-01 -7.866544723510742188e-01 -5.084590911865234375e-01 -6.906394958496093750e-01 5.142824649810791016e-01
3.929350972175598145e-01 -7.788296937942504883e-01 -4.889031350612640381e-01 6.342983245849609375e-01 -7.730116248130798340e-01 -1.089477073401212692e-02
-1.106936857104301453e-01 -3.881577849388122559e-01 -9.149209856986999512e-01 -5.683408379554748535e-01 8.187881112098693848e-01 -8.108475804328918457e-02
-4.742951393127441406e-01 6.722547411918640137e-01 5.684344172477722168e-01 2.337309122085571289e-01 -7.103502154350280762e-01 6.639069318771362305e-01
-9.382729977369308472e-02 6.353204250335693359e-01 7.665274739265441895e-01 -4.885457754135131836e-01 -6.989563703536987305e-01 -5.222863554954528809e-01
3.668658137321472168e-01 -5.257000327110290527e-01 -7.674952149391174316e-01 6.676223278045654297e-01 6.873435378074645996e-01 2.860757410526275635e-01
3.827836215496063232e-01 -8.900267481803894043e-01 2.476470321416854858e-01 -5.955180525779724121e-01 -1.858965903520584106e-01 7.815373539924621582e-01
-5.285089015960693359e-01 -4.265382289886474609e-01 7.339915037155151367e-01 4.895114302635192871e-01 5.206867456436157227e-01 -6.994739770889282227e-01
-7.826332449913024902e-01 6.092486977577209473e-01 1.276762336492538452e-01 2.704642713069915771e-01 -9.121946096420288086e-01 3.078150451183319092e-01
9.357640743255615234e-01 -1.896578818559646606e-01 2.972800731658935547e-01 -4.064451456069946289e-01 3.080469369888305664e-01 -8.601799011230468750e-01
7.298248261213302612e-02 -4.968981444835662842e-01 -8.647345304489135742e-01 4.228102266788482666e-01 4.783066809177398682e-01 7.697104811668395996e-01
2.319488823413848877e-01 -9.495483636856079102e-01 -2.110867798328399658e-01 -7.286201715469360352e-01 -1.856036186218261719e-01 6.592904925346374512e-01
2.869751751422882080e-01 -6.183221936225891113e-01 -7.316576838493347168e-01 -6.084880828857421875e-01 5.951792001724243164e-01 5.248847603797912598e-01
6.379717588424682617e-01 6.923506259918212891e-01 -3.371092975139617920e-01 -5.680557340383529663e-02 -9.353876113891601562e-01 -3.490317761898040771e-01
1.084222570061683655e-01 -4.897995591163635254e-01 8.650670647621154785e-01 -9.355887770652770996e-01 2.723474800586700439e-01 2.247230708599090576e-01
4.140520095825195312e-01 -5.026170611381530762e-01 7.589051127433776855e-01 -7.342950701713562012e-01 -7.062102109193801880e-02 6.751469373703002930e-01
-4.910503029823303223e-01 3.583040237426757812e-01 -7.940326333045959473e-01 9.079078435897827148e-01 -1.119134947657585144e-01 4.039538800716400146e-01
1.234708130359649658e-01 -9.294378161430358887e-01 -3.477071225643157959e-01 -1.279464662075042725e-01 5.467417836189270020e-01 8.274679183959960938e-01
9.601182341575622559e-01 1.040010228753089905e-01 2.595318257808685303e-01 -6.331584453582763672e-01 4.494513869285583496e-01 6.301617622375488281e-01
-7.882047891616821289e-01 -4.502047598361968994e-01 4.195818006992340088e-01 3.082362376153469086e-02 7.068093419075012207e-01 7.067322134971618652e-01
2.463871836662292480e-01 7.804936766624450684e-01 -5.745632648468017578e-01 -4.890375435352325439e-01 -4.551408886909484863e-01 -7.441028356552124023e-01
-4.567746818065643311e-01 -8.823573589324951172e-01 1.131475567817687988e-01 -1.831862181425094604e-01 2.605902850627899170e-01 9.479111433029174805e-01
-2.969061434268951416e-01 5.197163671255111694e-02 9.534913301467895508e-01 9.381660223007202148e-01 2.542983293533325195e-01 2.348976284265518188e-01
6.825827360153198242e-01 -9.297386556863784790e-02 7.248700857162475586e-01 7.303493618965148926e-01 2.110248655080795288e-01 -6.496601700782775879e-01
5.158166885375976562e-01 4.517607092857360840e-01 7.279047966003417969e-01 1.965771317481994629e-01 -9.276806712150573730e-01 -3.174366056919097900e-01
-1.538694202899932861e-01 -3.792776763439178467e-01 9.123994112014770508e-01 9.456800296902656555e-03 9.026713967323303223e-01 -4.302265644073486328e-01
4.261661469936370850e-01 5.723982453346252441e-01 7.005302906036376953e-01 9.078141450881958008e-01 -2.541534230113029480e-02 4.186019003391265869e-01
7.405358552932739258e-01 -1.416715532541275024e-01 -6.569138765335083008e-01 2.446372210979461670e-01 -8.090668320655822754e-01 5.343814492225646973e-01
4.192755520343780518e-01 4.919337332248687744e-01 7.630263566970825195e-01 1.235106885433197021e-01 6.472443938255310059e-01 7.522099614143371582e-01
2.046815752983093262e-01 8.019825220108032227e-01 5.611857771873474121e-01 7.653812170028686523e-01 -5.842503309249877930e-01 2.698947787284851074e-01
9.949905276298522949e-01 2.961472980678081512e-02 -9.548176825046539307e-02 -8.024954795837402344e-01 -2.290471643209457397e-01 5.509431362152099609e-01
3.275201618671417236e-01 -6.609894037246704102e-01 6.751470565795898438e-01 -8.400101065635681152e-01 4.831922650337219238e-01 -2.467960119247436523e-01
8.675981760025024414e-01 -1.220560371875762939e-01 4.820536077022552490e-01 -3.471570611000061035e-01 -4.715306460857391357e-01 8.106422424316406250e-01
-2.587469220161437988e-01 -3.153837025165557861e-01 -9.130077362060546875e-01 -8.187365531921386719e-01 -1.356759816408157349e-01 5.579090118408203125e-01
6.843798160552978516e-01 -6.890638470649719238e-01 2.383595705032348633e-01 -9.789697527885437012e-01 1.889224201440811157e-01 -7.698377966880798340e-02
4.847367703914642334e-01 8.183824419975280762e-01 -3.086752891540527344e-01 -5.977204442024230957e-01 -7.615265250205993652e-01 -2.506144642829895020e-01
1.615796089172363281e-01 -3.198762610554695129e-02 9.863411188125610352e-01 -7.473723888397216797e-01 6.564904451370239258e-01 -1.022485196590423584e-01
5.347171425819396973e-01 5.779793858528137207e-01 6.164555549621582031e-01 4.375496804714202881e-01 -8.335853815078735352e-01 3.371730744838714600e-01
5.169256329536437988e-01 -6.472685933113098145e-01 -5.602064728736877441e-01 -4.953953623771667480e-01 -8.636413812637329102e-01 -9.331128001213073730e-02
-1.551351249217987061e-01 8.941985964775085449e-01 4.199309051036834717e-01 7.715723942965269089e-03 -9.997498393058776855e-01 -2.099400572478771210e-02
4.303172826766967773e-01 4.539130628108978271e-01 -7.802499532699584961e-01 2.293947041034698486e-01 5.734925866127014160e-01 -7.864377498626708984e-01
-4.825365170836448669e-02 -9.651904106140136719e-01 2.570584416389465332e-01 -6.907978653907775879e-01 -6.067808866500854492e-01 3.932113945484161377e-01
-5.712469220161437988e-01 8.195305466651916504e-01 4.523960128426551819e-02 8.304237127304077148e-01 -5.187916755676269531e-01 -2.031051814556121826e-01
2.121996730566024780e-01 7.000970840454101562e-01 6.817883849143981934e-01 2.442643344402313232e-01 -9.618263840675354004e-01 1.233893260359764099e-01
-3.642950654029846191e-01 -2.155182510614395142e-01 -9.060027599334716797e-01 -5.932733416557312012e-01 -3.273234069347381592e-01 -7.354496121406555176e-01
6.672263145446777344e-01 6.825183033943176270e-01 2.982914745807647705e-01 1.816467344760894775e-01 -9.473444819450378418e-01 2.637098133563995361e-01
-9.083893895149230957e-01 -4.135620594024658203e-01 6.160498037934303284e-02 -6.047340631484985352e-01 -4.239553511142730713e-01 6.742095947265625000e-01
-7.089650630950927734e-01 3.471898436546325684e-01 -6.138629317283630371e-01 1.874797046184539795e-02 9.361013770103454590e-01 -3.512302935123443604e-01
1.888123452663421631e-01 1.560876239091157913e-02 9.818891286849975586e-01 8.060151934623718262e-01 -1.954055279493331909e-01 5.587093830108642578e-01
-9.846041798591613770e-01 -1.472641229629516602e-01 9.416949748992919922e-02 -5.668273568153381348e-01 2.870364189147949219e-01 7.722155451774597168e-01
7.858921289443969727e-01 -3.402133285999298096e-01 -5.163607597351074219e-01 1.663441359996795654e-01 9.165642261505126953e-01 -3.636476397514343262e-01
6.650934815406799316e-01 6.029700636863708496e-01 4.405426084995269775e-01 -1.951868087053298950e-01 8.956394195556640625e-01 3.996650576591491699e-01
-2.777964770793914795e-01 -4.029404520988464355e-01 8.720482587814331055e-01 6.944288015365600586e-01 6.160364300012588501e-02 7.169195413589477539e-01
-7.226195186376571655e-02 -5.270740762352943420e-02 -9.959920644760131836e-01 2.596306204795837402e-01 -7.711647748947143555e-01 5.812889337539672852e-01
9.377148151397705078e-01 -3.455190062522888184e-01 3.615998104214668274e-02 -5.573397874832153320e-01 7.091691493988037109e-01 -4.318002462387084961e-01
-9.351066946983337402e-01 1.647111028432846069e-01 3.137605786323547363e-01 4.659579396247863770e-01 -8.217228055000305176e-01 -3.281079232692718506e-01
7.593930959701538086e-01 -5.262890458106994629e-01 -3.825466930866241455e-01 -3.621198236942291260e-01 -9.282444119453430176e-01 -8.503858000040054321e-02
9.896308779716491699e-01 -6.850264035165309906e-03 -1.434705853462219238e-01 -1.009296178817749023e-01 -9.080822467803955078e-01 -4.064478278160095215e-01
-2.201352119445800781e-01 9.727928042411804199e-01 7.221263647079467773e-02 -9.507099390029907227e-01 2.712132632732391357e-01 1.503127962350845337e-01
-4.282691478729248047e-01 -8.742418289184570312e-01 -2.286629676818847656e-01 -9.288353323936462402e-01 -3.575966656208038330e-01 -9.689958393573760986e-02
-4.743983745574951172e-01 -4.058504998683929443e-01 7.811732292175292969e-01 -1.807514578104019165e-02 9.640443325042724609e-01 2.651259899139404297e-01
-1.139194965362548828e-01 -7.997977137565612793e-01 -5.893606543540954590e-01 1.334085017442703247e-01 5.575436949729919434e-01 8.193578124046325684e-01
1.031059995293617249e-01 8.253176212310791016e-01 5.551756620407104492e-01 -9.016544371843338013e-02 -4.484577775001525879e-01 -8.892444968223571777e-01
6.497152447700500488e-01 -3.810760006308555603e-02 -7.592219114303588867e-01 -4.593338072299957275e-01 8.273983597755432129e-01 3.231476247310638428e-01
1.149187907576560974e-01 9.737868905067443848e-01 1.962975263595581055e-01 -9.107292294502258301e-01 -2.691717632114887238e-02 4.121258556842803955e-01
-9.243199229240417480e-01 3.608264625072479248e-01 1.242454349994659424e-01 7.983760237693786621e-01 5.820553302764892578e-01 1.542962044477462769e-01
8.119534850120544434e-01 8.486466109752655029e-02 5.775201320648193359e-01 -1.623868569731712341e-02 -9.662284255027770996e-01 -2.571749687194824219e-01
5.262511968612670898e-01 2.922458946704864502e-01 -7.985311746597290039e-01 4.665276706218719482e-01 -8.089537024497985840e-01 -3.576951026916503906e-01
6.462812423706054688e-01 -6.780489683151245117e-01 -3.501001894474029541e-01 -6.293177008628845215e-01 5.338424444198608398e-01 -5.647755861282348633e-01
-8.743669390678405762e-01 -4.370173215866088867e-01 2.109462618827819824e-01 3.881166279315948486e-01 1.995116919279098511e-01 -8.997558355331420898e-01
-7.316089868545532227e-01 2.793111801147460938e-01 -6.218790411949157715e-01 7.908146381378173828e-01 -5.713633298873901367e-01 2.194451689720153809e-01
-7.077780961990356445e-01 -2.164496807381510735e-03 -7.064315080642700195e-01 -9.230744838714599609e-01 -3.306768834590911865e-02 -3.831970691680908203e-01
3.615588843822479248e-01 -9.086006879806518555e-02 9.279114603996276855e-01 1.167885959148406982e-01 -8.873794674873352051e-01 -4.460023641586303711e-01
7.270371913909912109e-01 3.820939064025878906e-01 5.704569816589355469e-01 -7.739221453666687012e-01 6.011530160903930664e-01 -1.991470754146575928e-01
8.086001276969909668e-01 -3.553008437156677246e-01 4.689639508724212646e-01 -2.368920482695102692e-02 6.205084919929504395e-01 -7.838418483734130859e-01
-8.672718405723571777e-01 -4.950459599494934082e-01 5.262172967195510864e-02 1.034857332706451416e-01 5.296124219894409180e-01 8.419034481048583984e-01
6.802958846092224121e-01 7.328655123710632324e-01 1.028237491846084595e-02 -8.013290762901306152e-01 -4.099144041538238525e-02 -5.968177318572998047e-01
-3.733123466372489929e-02 1.451496034860610962e-01 -9.887052178382873535e-01 1.914340406656265259e-01 9.166862964630126953e-01 -3.507694900035858154e-01
-2.364074438810348511e-01 -8.205542564392089844e-01 5.203865766525268555e-01 9.049113392829895020e-01 9.026697278022766113e-02 4.159174263477325439e-01
-3.040268719196319580e-01 4.563965797424316406e-01 8.362235426902770996e-01 2.697746753692626953e-01 9.126470685005187988e-01 -3.070781230926513672e-01
-9.860680252313613892e-02 -8.291429877281188965e-01 5.502713918685913086e-01 -3.638367056846618652e-01 7.186477780342102051e-01 -5.925945043563842773e-01
4.789055511355400085e-02 -7.863704562187194824e-01 -6.158961057662963867e-01 7.943100333213806152e-01 2.130554914474487305e-01 -5.689278244972229004e-01
7.722846865653991699e-01 2.543582022190093994e-01 -5.821325182914733887e-01 1.414252966642379761e-01 -7.627193927764892578e-01 6.310768723487854004e-01
-3.485283255577087402e-01 -8.222166299819946289e-01 4.499865174293518066e-01 3.311945796012878418e-01 -9.432356953620910645e-01 -2.483082190155982971e-02
1.680902019143104553e-02 7.281339168548583984e-01 -6.852287650108337402e-01 7.973308563232421875e-01 -6.115983799099922180e-02 -6.004356145858764648e-01
8.531079888343811035e-01 2.287475615739822388e-01 4.689150154590606689e-01 1.497137546539306641e-01 9.843357205390930176e-01 9.310746937990188599e-02
6.838761270046234131e-02 -6.513796448707580566e-01 7.556637525558471680e-01 -8.456015586853027344e-01 5.205334424972534180e-01 1.183340400457382202e-01
-4.272850751876831055e-01 2.003683447837829590e-01 8.816348314285278320e-01 -9.641566872596740723e-01 -3.891677409410476685e-02 2.624640464782714844e-01
8.264698386192321777e-01 -5.597913861274719238e-01 5.984256416559219360e-02 5.352112650871276855e-01 3.091839253902435303e-01 7.861006259918212891e-01
1.429785192012786865e-01 9.037631750106811523e-01 -4.034467041492462158e-01 -2.087499350309371948e-01 -9.655314087867736816e-01 -1.554751694202423096e-01
3.862061798572540283e-01 5.686487555503845215e-01 7.262805104255676270e-01 8.671030998229980469e-01 1.564618051052093506e-01 4.729184508323669434e-01
-5.577936768531799316e-01 1.429807394742965698e-01 8.175712227821350098e-01 -4.120410680770874023e-01 1.748525351285934448e-01 -8.942308425903320312e-01
-5.240021273493766785e-02 8.432387113571166992e-01 -5.349791646003723145e-01 1.671402752399444580e-01 -3.821995854377746582e-01 -9.088385701179504395e-01
8.941828012466430664e-01 2.751922309398651123e-01 -3.531378209590911865e-01 -9.626618027687072754e-02 -9.252727031707763672e-01 3.668831288814544678e-01
-6.077470183372497559e-01 -7.108175158500671387e-01 3.540932238101959229e-01 2.451322525739669800e-01 -7.608579397201538086e-01 -6.008372306823730469e-01
-5.236580967903137207e-01 5.105161070823669434e-01 6.820230484008789062e-01 2.776242494583129883e-01 -7.573890686035156250e-01 5.910047292709350586e-01
7.836278080940246582e-01 -4.206672906875610352e-01 4.571285247802734375e-01 -9.589865803718566895e-01 -1.578192114830017090e-01 -2.354522794485092163e-01
-1.456203162670135498e-01 9.019283652305603027e-01 4.065955281257629395e-01 -4.009895920753479004e-01 2.180137038230895996e-01 8.897625207901000977e-01
-3.645979762077331543e-01 -4.933041930198669434e-01 -7.897589802742004395e-01 8.735497593879699707e-01 2.322473526000976562e-01 4.277522563934326172e-01
5.390766859054565430e-01 -4.869764149188995361e-01 -6.872046589851379395e-01 -7.687623500823974609e-01 -5.216252207756042480e-01 3.700156509876251221e-01
-1.701667308807373047e-01 -8.325276374816894531e-01 -5.272011160850524902e-01 -3.915465474128723145e-01 9.513523429632186890e-02 9.152270555496215820e-01
6.533467024564743042e-02 6.922836899757385254e-01 -7.186617255210876465e-01 -3.715586066246032715e-01 4.387275874614715576e-01 -8.182067871093750000e-01
3.102908134460449219e-01 -8.219408392906188965e-01 -4.776325225830078125e-01 -4.154305160045623779e-01 -4.482745826244354248e-01 7.914969325065612793e-01
-5.076440572738647461e-01 -5.399192571640014648e-01 -6.714050173759460449e-01 8.238348364830017090e-01 -1.874237321317195892e-02 -5.665199756622314453e-01
-6.968933343887329102e-01 -5.538973808288574219e-01 4.555627405643463135e-01 -1.357142031192779541e-01 9.644656777381896973e-01 2.266884446144104004e-01
-8.335900306701660156e-01 -3.399623334407806396e-01 4.353771507740020752e-01 2.868714332580566406e-01 3.509011566638946533e-01 -8.913883566856384277e-01
-2.923074960708618164e-01 1.982354521751403809e-01 -9.355527758598327637e-01 3.115822672843933105e-01 -2.343904078006744385e-01 -9.208570122718811035e-01
8.052727580070495605e-01 5.925431251525878906e-01 2.069811150431632996e-02 3.783846199512481689e-01 7.887588143348693848e-01 -4.844426214694976807e-01
-2.530581951141357422e-01 2.182127237319946289e-01 -9.425204396247863770e-01 -4.922012090682983398e-01 2.663859426975250244e-01 8.287197947502136230e-01
8.456656932830810547e-01 5.137716531753540039e-01 1.445274204015731812e-01 -7.026088833808898926e-01 2.676287591457366943e-01 6.593296527862548828e-01
-8.807566761970520020e-01 4.593768343329429626e-02 4.713358283042907715e-01 -5.923326611518859863e-01 3.518363833427429199e-02 8.049249649047851562e-01
-8.907852768898010254e-01 -3.229954540729522705e-01 -3.196490108966827393e-01 -6.673084497451782227e-01 4.826886653900146484e-01 -5.671957731246948242e-01
9.756720066070556641e-02 -3.184873759746551514e-01 9.428926110267639160e-01 1.577001065015792847e-01 -9.683160781860351562e-01 -1.936354935169219971e-01
-5.368444919586181641e-01 7.961723208427429199e-01 2.791194021701812744e-01 8.539977073669433594e-01 5.196784734725952148e-01 -2.494409307837486267e-02
2.135549187660217285e-01 -9.566901922225952148e-01 1.978336125612258911e-01 -8.306616544723510742e-01 -4.311423003673553467e-01 3.523032069206237793e-01
-4.828100502490997314e-01 -8.727728128433227539e-01 -7.184741646051406860e-02 -9.156006574630737305e-01 2.153679579496383667e-01 3.395469188690185547e-01
-9.468901753425598145e-01 -5.285379290580749512e-02 -3.171836435794830322e-01 8.322525620460510254e-01 5.372026562690734863e-01 -1.370000541210174561e-01
-6.089513897895812988e-01 -4.048851430416107178e-01 -6.820896267890930176e-01 -8.231376409530639648e-01 -4.202612042427062988e-01 -3.818703293800354004e-01
5.878688693046569824e-01 2.866913974285125732e-01 7.564510703086853027e-01 7.935478091239929199e-01 -4.792510867118835449e-01 -3.749670386314392090e-01
1.557572628371417522e-03 -3.598241508007049561e-01 -9.330188632011413574e-01 8.950735330581665039e-01 1.495858281850814819e-01 -4.200803041458129883e-01
4.504158198833465576e-01 -4.139727652072906494e-01 -7.910449504852294922e-01 4.261577129364013672e-01 8.104246854782104492e-01 4.019967913627624512e-01
4.435292482376098633e-01 -7.794644236564636230e-01 4.423991143703460693e-01 -9.342187643051147461e-02 -8.670749068260192871e-01 4.893397688865661621e-01
-6.870094537734985352e-01 -6.570022106170654297e-01 -3.104289174079895020e-01 -1.140568777918815613e-01 -9.889829754829406738e-01 -9.435945749282836914e-02
8.068796992301940918e-01 -4.174899458885192871e-01 4.179082512855529785e-01 6.176878213882446289e-01 -5.283578038215637207e-01 -5.824944376945495605e-01
9.239937067031860352e-01 3.503202795982360840e-01 1.533340811729431152e-01 1.409424394369125366e-01 1.939821541309356689e-01 -9.708275794982910156e-01
-8.109606057405471802e-02 -2.229807674884796143e-01 9.714437723159790039e-01 -9.669110774993896484e-01 -2.517239451408386230e-01 -4.144882410764694214e-02
-4.147870093584060669e-02 -7.190930843353271484e-01 -6.936747431755065918e-01 -5.022395774722099304e-02 9.728372693061828613e-01 -2.259761095046997070e-01
6.327483803033828735e-02 9.977203607559204102e-01 -2.345915883779525757e-02 -5.747264623641967773e-01 6.322193145751953125e-01 -5.196038484573364258e-01
-2.484410852193832397e-01 2.058134227991104126e-01 -9.465293884277343750e-01 -2.700279653072357178e-01 2.068963274359703064e-02 -9.626301527023315430e-01
5.842939615249633789e-01 1.306484341621398926e-01 8.009566664695739746e-01 -8.767147660255432129e-01 3.579975962638854980e-01 3.212614655494689941e-01
8.096721768379211426e-01 1.620993763208389282e-01 -5.640521049499511719e-01 -2.850780785083770752e-01 8.518093228340148926e-01 -4.394899010658264160e-01
5.315096974372863770e-01 5.933840274810791016e-01 6.044773459434509277e-01 -4.843243062496185303e-01 2.909636795520782471e-01 -8.250879645347595215e-01
7.366158533841371536e-03 3.743678331375122070e-03 -9.999658465385437012e-01 3.568587005138397217e-01 -9.171755909919738770e-01 1.773156225681304932e-01
-7.273923158645629883e-01 -6.730111241340637207e-01 1.340018212795257568e-01 8.110230565071105957e-01 2.080405354499816895e-01 5.467730164527893066e-01
3.790447413921356201e-01 3.909128606319427490e-01 -8.387563824653625488e-01 -6.839033365249633789e-01 -1.776119023561477661e-01 -7.076229453086853027e-01
9.336233735084533691e-01 -3.551804125308990479e-01 -4.684241861104965210e-02 -1.358086764812469482e-01 1.153851374983787537e-01 9.839930534362792969e-01
7.913039326667785645e-01 -2.647835016250610352e-01 5.511149764060974121e-01 1.390851438045501709e-01 9.889818429946899414e-01 5.069804564118385315e-02
3.532322049140930176e-01 -4.350301623344421387e-01 8.282365202903747559e-01 -2.275011539459228516e-01 -9.543873667716979980e-01 1.933596730232238770e-01
6.099037528038024902e-01 -5.937274694442749023e-01 -5.248857140541076660e-01 6.239432096481323242e-01 7.690322399139404297e-01 1.388678252696990967e-01
-1.648610271513462067e-02 5.097686648368835449e-01 8.601535558700561523e-01 8.864770531654357910e-01 3.587506115436553955e-01 2.923293113708496094e-01
-3.741177022457122803e-01 1.622743010520935059e-01 -9.130733609199523926e-01 7.505000829696655273e-01 -3.459603339433670044e-02 -6.599642038345336914e-01
-4.902542531490325928e-01 6.730486452579498291e-02 -8.689768910408020020e-01 4.339095056056976318e-01 -5.504668354988098145e-01 7.132382392883300781e-01
-6.950974464416503906e-01 7.092732191085815430e-01 1.173501834273338318e-01 -8.318981528282165527e-01 -4.470878839492797852e-01 -3.287216126918792725e-01
-2.898119091987609863e-01 8.660047054290771484e-01 -4.074860811233520508e-01 3.294051289558410645e-01 9.044676423072814941e-01 2.709806263446807861e-01
-7.888839244842529297e-01 2.904174327850341797e-01 5.415900945663452148e-01 -2.122186422348022461e-01 -9.285129308700561523e-01 3.046752810478210449e-01
-2.017979621887207031e-01 3.931699097156524658e-01 -8.970479369163513184e-01 6.011414527893066406e-01 -2.166214585304260254e-02 7.988489866256713867e-01
-2.160416245460510254e-01 -9.654074907302856445e-01 1.459946185350418091e-01 -9.123309850692749023e-01 -3.921304345130920410e-01 -1.178384274244308472e-01
-9.573494195938110352e-01 -2.058590501546859741e-01 2.027415782213211060e-01 -5.794737935066223145e-01 7.065653204917907715e-01 -4.061718285083770752e-01
-5.472455024719238281e-01 -8.367397189140319824e-01 -1.972308382391929626e-02 8.868997693061828613e-01 -2.367173582315444946e-01 -3.967035114765167236e-01
6.946260575205087662e-03 -6.663167476654052734e-01 7.456364631652832031e-01 2.375372499227523804e-01 1.463224738836288452e-01 9.602946639060974121e-01
-4.868899285793304443e-01 -8.362284898757934570e-01 2.523095607757568359e-01 -8.059585094451904297e-01 -5.397401452064514160e-01 2.431284785270690918e-01
-2.841026484966278076e-01 -4.786229729652404785e-01 -8.307862281799316406e-01 -8.047948479652404785e-01 -5.874508023262023926e-01 -8.489306271076202393e-02
-5.543523430824279785e-01 7.287240624427795410e-01 4.020631015300750732e-01 6.154653429985046387e-01 -1.314719915390014648e-01 -7.771213054656982422e-01
-6.491292119026184082e-01 -7.015463113784790039e-01 2.940476238727569580e-01 5.397508740425109863e-01 -6.664257645606994629e-01 -5.143400430679321289e-01
-2.305462509393692017e-01 -8.087933659553527832e-01 5.410191416740417480e-01 6.256631612777709961e-01 -7.507843971252441406e-01 2.118216007947921753e-01
1.019137576222419739e-01 -8.978838324546813965e-01 -4.282735884189605713e-01 -2.493216991424560547e-01 3.628909587860107422e-01 8.978579044342041016e-01
-8.942727446556091309e-01 -4.441518783569335938e-01 5.482138693332672119e-02 -1.989484727382659912e-01 -9.743689298629760742e-01 -1.049984693527221680e-01
-1.794230006635189056e-02 -2.765003144741058350e-01 -9.608463048934936523e-01 -6.762417405843734741e-02 -8.424985408782958984e-01 -5.344372391700744629e-01
9.824622273445129395e-01 -1.469206362962722778e-01 1.148139759898185730e-01 -5.942157506942749023e-01 -4.211211502552032471e-01 -6.852478384971618652e-01
4.241866469383239746e-01 8.690047264099121094e-01 -2.547478079795837402e-01 8.015012741088867188e-01 -3.318620920181274414e-01 -4.974568188190460205e-01
5.764539539813995361e-02 3.560708463191986084e-01 -9.326792359352111816e-01 2.324530035257339478e-01 9.660055041313171387e-01 1.131323426961898804e-01
-4.599667787551879883e-01 -4.770593941211700439e-01 7.488957643508911133e-01 2.878557443618774414e-01 3.557317554950714111e-01 8.891535401344299316e-01
8.884141445159912109e-01 3.414196074008941650e-01 3.068435192108154297e-01 7.437850832939147949e-01 -3.235727921128273010e-02 -6.676352024078369141e-01
2.448235638439655304e-02 -8.045459985733032227e-01 -5.933855175971984863e-01 2.388978898525238037e-01 7.551886439323425293e-01 -6.104243993759155273e-01
-4.417975842952728271e-01 -7.843563556671142578e-01 -4.354307651519775391e-01 3.769119977951049805e-01 -6.136142611503601074e-01 -6.938406825065612793e-01
1.160143762826919556e-01 6.830177307128906250e-01 -7.211292982101440430e-01 3.789425492286682129e-01 1.631397604942321777e-01 -9.109269976615905762e-01
2.080809026956558228e-01 3.122922182083129883e-01 9.269174337387084961e-01 -7.156968712806701660e-01 -5.416535735130310059e-01 4.408961236476898193e-01
-6.525973677635192871e-01 -7.546377182006835938e-01 6.810765713453292847e-02 -5.510464906692504883e-01 6.438212394714355469e-01 -5.308879017829895020e-01
-3.391194716095924377e-02 6.825605034828186035e-01 -7.300418615341186523e-01 -1.360275596380233765e-01 2.352266162633895874e-01 9.623746275901794434e-01
-9.927040934562683105e-01 -1.107103601098060608e-01 4.776802286505699158e-02 -2.561541795730590820e-01 -3.192595541477203369e-01 -9.123915433883666992e-01
-5.528011322021484375e-01 -4.390301108360290527e-01 7.082820534706115723e-01 -4.649797976016998291e-01 -1.697927862405776978e-01 -8.688867688179016113e-01
-5.302188992500305176e-01 -3.276157975196838379e-01 7.820075154304504395e-01 -8.458731696009635925e-03 6.089577674865722656e-01 -7.931575775146484375e-01
-5.957570672035217285e-01 7.613641619682312012e-01 -2.557305097579956055e-01 -8.052117228507995605e-01 5.878828763961791992e-01 -7.763877511024475098e-02
1.115847751498222351e-01 -1.140614077448844910e-01 -9.871873259544372559e-01 6.296036243438720703e-01 -3.799500763416290283e-01 6.776704192161560059e-01
9.172174334526062012e-01 -2.882941961288452148e-01 2.749520540237426758e-01 6.976157426834106445e-01 5.838721990585327148e-01 4.152414798736572266e-01
2.943510711193084717e-01 -5.409063100814819336e-01 -7.878945469856262207e-01 -7.021012902259826660e-01 -6.787459850311279297e-01 -2.153083533048629761e-01
7.787439227104187012e-01 6.255477666854858398e-01 -4.741156846284866333e-02 -6.832468509674072266e-01 2.671669721603393555e-01 -6.795554161071777344e-01
-5.959296822547912598e-01 7.643812298774719238e-01 -2.461487054824829102e-01 8.931573629379272461e-01 6.153367459774017334e-02 -4.455148875713348389e-01
-8.779066205024719238e-01 -1.407036483287811279e-01 4.576925039291381836e-01 6.430406123399734497e-02 3.785766065120697021e-01 -9.233335256576538086e-01
-5.926875472068786621e-01 -3.345055878162384033e-01 -7.326850891113281250e-01 7.609395384788513184e-01 -6.488215327262878418e-01 1.263459795154631138e-03
-1.719919741153717041e-01 -9.837787598371505737e-02 -9.801737666130065918e-01 1.884351223707199097e-01 5.892929434776306152e-01 -7.856373190879821777e-01
1.323830783367156982e-01 -4.025087952613830566e-01 -9.057932496070861816e-01 -6.511489152908325195e-01 1.115652620792388916e-01 -7.507051825523376465e-01
9.132261872291564941e-01 -2.210102826356887817e-01 3.423044681549072266e-01 -2.172163426876068115e-01 -9.460939168930053711e-01 -2.402569055557250977e-01
-5.400793552398681641e-01 8.393025398254394531e-01 6.233388930559158325e-02 6.440671682357788086e-01 -4.916366934776306152e-01 -5.860638618469238281e-01
3.174934983253479004e-01 -1.153719425201416016e-01 9.412158131599426270e-01 -2.437328845262527466e-01 -7.625349611043930054e-02 9.668400287628173828e-01
1.200184002518653870e-01 1.037247776985168457e-01 -9.873382449150085449e-01 -8.457742333412170410e-01 -4.301879405975341797e-01 -3.156014978885650635e-01
-7.819570302963256836e-01 -6.155710816383361816e-01 9.805808961391448975e-02 -4.358961582183837891e-01 -3.437966704368591309e-01 8.317441940307617188e-01
5.208205580711364746e-01 -7.200097441673278809e-01 4.586195647716522217e-01 3.186274468898773193e-01 6.474139690399169922e-01 6.923378705978393555e-01
-6.405244469642639160e-01 -5.890984535217285156e-01 -4.926372170448303223e-01 -4.493426084518432617e-01 -8.359078168869018555e-01 3.151972591876983643e-01
4.182856976985931396e-01 9.025725722312927246e-01 -1.019796952605247498e-01 -4.788745939731597900e-02 -7.869617938995361328e-01 6.151405572891235352e-01
2.454601675271987915e-01 -9.570112824440002441e-01 -1.545272916555404663e-01 -2.745335102081298828e-01 -2.790290713310241699e-01 -9.202033281326293945e-01
2.258735597133636475e-01 6.374558806419372559e-01 7.366350293159484863e-01 -3.521537482738494873e-01 9.019430875778198242e-01 -2.499727308750152588e-01
9.192696213722229004e-01 3.612993955612182617e-01 1.562246382236480713e-01 -3.160262405872344971e-01 8.416931629180908203e-01 -4.378127455711364746e-01
8.642026782035827637e-01 -4.952976107597351074e-01 8.850973099470138550e-02 8.213916420936584473e-01 -2.327771037817001343e-01 -5.207020044326782227e-01
5.284554958343505859e-01 1.952358931303024292e-01 8.262068033218383789e-01 -9.653509259223937988e-01 2.279456853866577148e-01 1.270366907119750977e-01
-6.666718721389770508e-01 -1.750781983137130737e-01 7.244971990585327148e-01 -7.904294133186340332e-01 2.450510710477828979e-01 5.614011883735656738e-01
1.227621808648109436e-01 -8.580052256584167480e-01 -4.987549483776092529e-01 -3.387684524059295654e-01 1.662240475416183472e-01 9.260699152946472168e-01
-9.844219684600830078e-01 -1.757543683052062988e-01 -4.872498102486133575e-03 -5.052028298377990723e-01 -7.853875160217285156e-01 -3.576822578907012939e-01
8.669660240411758423e-02 2.127746343612670898e-01 9.732474684715270996e-01 8.249902129173278809e-01 -2.434680610895156860e-01 5.100141763687133789e-01
-8.934041261672973633e-01 -1.654328852891921997e-01 4.176853299140930176e-01 5.956245064735412598e-01 3.817649483680725098e-01 -7.067439556121826172e-01
8.460926413536071777e-01 5.224620699882507324e-01 -1.056437343358993530e-01 -4.543500486761331558e-03 3.978919386863708496e-01 -9.174210429191589355e-01
2.649545967578887939e-01 -8.236261606216430664e-01 5.014370083808898926e-01 4.728590846061706543e-01 2.695609331130981445e-01 8.388928174972534180e-01
3.795428276062011719e-01 5.540635585784912109e-01 7.409188747406005859e-01 -7.420753240585327148e-01 -5.641686320304870605e-01 -3.619916141033172607e-01
8.118233680725097656e-01 3.916255533695220947e-01 -4.330961108207702637e-01 -7.797941565513610840e-01 2.359516024589538574e-01 -5.798689126968383789e-01
5.212898850440979004e-01 2.936899960041046143e-01 8.012509346008300781e-01 -3.267338275909423828e-01 -7.348539233207702637e-01 5.943355560302734375e-01
-9.649888873100280762e-01 2.611604630947113037e-01 -2.432417869567871094e-02 1.184323430061340332e-01 -9.900749921798706055e-01 7.566531002521514893e-02
-5.825599431991577148e-01 7.446726560592651367e-01 -3.257092535495758057e-01 5.361215472221374512e-01 3.477810919284820557e-01 -7.691696882247924805e-01
3.870740234851837158e-01 6.998144388198852539e-01 6.003611087799072266e-01 -3.953953981399536133e-01 8.982066512107849121e-01 1.920607089996337891e-01
-3.572674393653869629e-01 -9.252461791038513184e-01 1.275911033153533936e-01 7.436152100563049316e-01 6.093862652778625488e-01 -2.751087546348571777e-01
-6.015301346778869629e-01 7.837482094764709473e-01 -1.545972675085067749e-01 -5.229225754737854004e-02 3.779868483543395996e-01 -9.243329763412475586e-01
8.405114412307739258e-01 -3.577499687671661377e-01 4.068851172924041748e-01 6.221761703491210938e-01 6.207322478294372559e-01 -4.770621359348297119e-01
8.614971637725830078e-01 5.047082901000976562e-01 -5.560744926333427429e-02 4.482959806919097900e-01 8.691643476486206055e-01 2.087680548429489136e-01
-3.166373372077941895e-01 2.787336409091949463e-01 -9.066688418388366699e-01 -6.121571660041809082e-01 6.080595850944519043e-01 5.054969787597656250e-01
7.978029251098632812e-01 4.892273545265197754e-01 -3.523735105991363525e-01 -5.097124725580215454e-02 1.218672916293144226e-01 9.912367463111877441e-01
-7.668759822845458984e-01 6.389793753623962402e-01 6.005486473441123962e-02 -9.284361600875854492e-01 -1.271602064371109009e-01 -3.490509986877441406e-01
6.743510961532592773e-01 -7.349373102188110352e-01 -7.153815031051635742e-02 5.636380985379219055e-02 -9.705583453178405762e-01 2.341786473989486694e-01
1.350551545619964600e-01 6.241933703422546387e-01 -7.695081233978271484e-01 6.758548021316528320e-01 1.237000077962875366e-01 -7.265800833702087402e-01
1.181375384330749512e-01 -1.584205180406570435e-01 -9.802787899971008301e-01 9.955879449844360352e-01 -5.223893374204635620e-02 7.794681936502456665e-02
-1.832518875598907471e-01 -9.705699682235717773e-01 1.562456488609313965e-01 -8.027541041374206543e-01 5.245548486709594727e-01 2.835983335971832275e-01
3.728715479373931885e-01 -5.174736976623535156e-01 7.701868414878845215e-01 -9.744734764099121094e-01 -2.892423979938030243e-02 -2.226315140724182129e-01
-3.221062719821929932e-01 -1.991060972213745117e-01 -9.255291819572448730e-01 -4.440585672855377197e-01 7.537464052438735962e-02 -8.928217291831970215e-01
-6.362948417663574219e-01 -7.353809475898742676e-01 -2.331174910068511963e-01 -2.217454314231872559e-01 -2.755643725395202637e-01 -9.353572726249694824e-01
5.999033451080322266e-01 7.059568762779235840e-01 -3.764848411083221436e-01 -6.361070871353149414e-01 3.415565788745880127e-01 -6.918864846229553223e-01
4.540552198886871338e-01 8.093246221542358398e-01 3.725956678390502930e-01 -5.287177562713623047e-01 1.260366737842559814e-01 8.393880724906921387e-01
-8.502050638198852539e-01 4.319755136966705322e-01 3.009127080440521240e-01 -2.495285868644714355e-01 7.069799304008483887e-01 -6.617513895034790039e-01
6.240899562835693359e-01 2.226052284240722656e-01 7.489717006683349609e-01 6.300691515207290649e-02 9.801683425903320312e-01 -1.878833472728729248e-01
-3.560982942581176758e-01 -8.603639602661132812e-01 -3.646475076675415039e-01 1.947100013494491577e-01 -7.772821187973022461e-01 5.982645750045776367e-01
-5.863920450210571289e-01 3.189420998096466064e-01 7.445940971374511719e-01 5.535942316055297852e-01 -7.806488275527954102e-01 -2.900359332561492920e-01
1.991768032312393188e-01 4.313197433948516846e-01 -8.799385428428649902e-01 -8.036290819291025400e-05 -9.765825867652893066e-01 2.151429355144500732e-01
7.111001014709472656e-01 -5.664135217666625977e-01 4.165482223033905029e-01 -7.852835655212402344e-01 3.201266527175903320e-01 5.299515724182128906e-01
6.767081022262573242e-01 1.715855002403259277e-01 7.159780859947204590e-01 -9.423075914382934570e-01 9.801206737756729126e-02 -3.200781345367431641e-01
